# .PCD v.7 - Point Cloud Data file
VERSION .7
FIELDS x y z
SIZE 4 4 4
TYPE F F F
COUNT 1 1 1
WIDTH 1
HEIGHT 510
VIEWPOINT 0 0 0 1 0 0 0
POINTS 510
DATA ascii
123.42 91.6937 709.107
104.06 91.0195 710.605
91.234 91.2724 710.31
78.166 91.0195 710.713
65.824 91.0195 710.605
62.436 91.0195 709.681
59.774 91.6095 722.89
25.652 91.0195 738.839
12.826 91.4409 740.055
-10.164 91.0195 738.657
-25.894 91.1881 735.74
-38.962 91.0195 732.36
-51.788 91.0195 728.148
-52.272 91.0195 728.027
-182.226 91.0195 711.457
-195.052 91.0195 711.497
-208.12 91.6095 711.529
-221.188 91.4409 711.786
122.936 78.4622 709.027
104.302 78.1251 710.378
91.234 78.8836 710.161
78.408 78.2936 710.465
65.098 78.0408 710.54
61.71 78.6308 709.47
58.564 78.3779 722.809
25.652 78.0408 738.703
0.242 78.1251 740.228
-12.826 78.1251 738.703
-25.894 78.0408 735.792
-38.962 78.0408 732.373
-51.788 78.4622 728.247
-52.514 78.0408 728.005
-182.226 78.1251 711.346
-195.052 78.4622 711.277
-208.12 78.3779 711.383
-221.188 79.2207 711.473
121.484 65.3149 709.231
104.786 65.1464 710.245
91.234 65.1464 710.115
78.408 65.2307 710.394
65.824 65.3149 710.32
60.984 67.6747 709.052
57.838 68.3489 722.453
25.894 65.0621 738.297
0.484 66.3263 740.055
-12.826 65.3149 738.446
-25.168 65.0621 735.944
-38.962 66.5791 732.404
-51.788 65.0621 728.436
-52.756 65.1464 728.042
-182.226 65.4835 711.203
-195.052 65.0621 711.219
-208.12 65.2307 711.321
7.502 91.0195 741
-221.188 65.2307 711.544
121.726 54.4432 708.655
104.06 52.0834 710.189
91.234 52.1677 710.062
78.166 52.0834 710.195
65.582 52.1677 710.199
60.258 54.5274 709.101
58.08 53.769 721.914
25.168 52.0834 738.142
12.584 52.5048 739.918
-12.826 53.179 738.508
-25.652 52.0834 735.867
-38.962 52.0834 732.512
-51.788 52.0834 728.485
-53.24 52.0834 728.011
-182.226 52.4205 710.974
-195.294 52.4205 710.905
-208.12 52.5891 711.039
8.712 89.334 741.006
-221.43 52.0834 711.284
120.758 40.7902 708.763
104.06 39.4418 710.013
91.234 39.0204 709.854
78.166 39.189 710.078
65.098 39.2732 710.022
59.532 39.6946 709.036
58.08 49.4708 721.591
51.788 39.189 727.416
25.652 39.4418 737.817
2.42 39.1047 739.881
-12.826 39.5261 738.312
-25.652 39.8632 735.746
-38.962 39.9475 732.547
-51.788 39.189 728.424
-53.482 39.0204 728.011
-182.226 39.189 710.834
-195.052 39.1047 710.815
-208.12 39.4418 710.828
-221.188 39.0204 711.178
120.274 27.3901 708.621
104.302 26.0417 709.885
91.476 26.6316 709.622
78.408 26.2103 709.963
65.098 26.0417 710
58.806 28.8228 708.897
55.902 26.9688 721.715
51.788 26.0417 726.765
-90.992 -26.9688 712.917
50.336 26.4631 728.002
-77.924 -78.0408 719.855
-51.788 13.9058 728.647
-95.832 -26.9688 709.659
38.962 26.9688 734.186
-88.572 -78.1251 715.035
-53.966 13.4001 728.002
-104.06 -26.0417 709.851
-117.128 -26.126 709.845
-130.196 -26.2103 709.898
-143.022 -28.2329 709.867
-156.09 -26.2945 709.935
-64.856 78.0408 723.352
-169.158 -26.2103 709.854
-77.924 78.2094 717.632
-182.226 -26.0417 710.059
-83.49 78.2094 715.013
-195.294 -26.0417 709.898
-208.12 -26.8845 710.075
-221.188 -26.5474 710.261
45.496 -39.189 728.024
-156.09 39.2732 710.67
-51.788 -39.0204 729.028
-90.992 -93.8007 714.102
-64.856 8.34346 724.093
-169.158 39.6946 710.695
-55.176 -39.2732 728.011
-100.188 -91.1881 709.275
-77.924 12.7259 718.466
52.998 65.3992 728.002
-64.856 -39.6946 724.589
51.788 65.2307 728.774
-77.924 -39.189 719.353
38.962 65.0621 735.402
-87.12 -39.0204 715.072
-90.992 -39.8632 713.271
-156.09 91.1038 711.414
-51.788 4.38242 728.69
-96.558 -39.0204 709.678
-169.158 91.0195 711.404
-54.208 0.50566 728.011
-104.06 -39.0204 709.65
-117.37 -39.6946 709.724
-130.196 -39.0204 709.848
-143.022 -39.0204 709.82
-156.09 -39.0204 709.87
-64.856 66.1577 723.6
-169.158 -40.2003 709.845
-77.924 65.0621 717.936
-182.226 -39.1047 709.96
-83.974 65.5678 715.066
-195.052 -39.0204 709.907
-208.604 -39.6946 709.848
-221.188 -39.3575 710.251
44.528 -52.0834 728.036
-64.856 -0.08428 724.139
-77.924 -2.52832 718.795
52.03 53.179 728.017
-64.856 -52.2519 724.84
51.788 52.5048 728.303
-77.924 -52.8419 719.765
38.962 52.1677 734.918
-88.088 -52.3362 715.056
-90.992 -52.3362 713.655
-156.09 78.1251 711.181
-51.788 -1.09561 728.727
-97.768 -52.0834 709.619
-169.158 78.0408 711.318
-54.208 -0.58994 728.017
-104.06 -52.3362 709.65
-117.37 -52.5048 709.634
-130.196 -52.0834 709.848
-143.022 -52.1677 709.83
-156.09 -52.6733 709.814
-64.856 52.5048 723.615
-169.158 -52.3362 709.811
-77.924 52.4205 718.042
-182.226 -52.1677 709.917
-84.216 52.1677 715.025
-195.052 -52.3362 709.827
-208.12 -52.0834 710.006
-221.188 -55.9602 710.013
104.06 -39.8632 709.29
43.802 -65.3149 728.017
91.476 -39.0204 709.107
78.166 -39.5261 709.365
54.692 -41.1273 708.357
54.934 91.0195 728.076
-64.856 -13.063 724.291
-208.12 -78.0408 709.541
104.06 -65.0621 709.101
41.866 -91.2724 728.002
-221.188 -78.0408 709.65
52.03 -45.594 720.559
91.718 -65.0621 708.81
-90.992 -1.26416 712.598
38.962 -91.0195 729.818
51.788 -49.5551 720.701
78.166 -65.0621 709.076
-94.864 -2.19121 709.839
25.894 -91.1881 734.896
-90.992 39.2732 711.944
38.962 -40.706 731.868
104.06 -91.2724 708.884
65.34 -65.0621 709.055
-92.928 39.0204 710.406
25.894 -39.1047 736.081
91.234 -91.1881 708.708
67.034 -39.0204 709.16
49.852 -91.1881 720.125
78.166 -52.0834 709.272
-94.864 0.33711 709.851
25.652 -79.1364 735.107
53.24 -65.3992 707.719
-104.06 39.3575 710.552
11.858 -39.1047 738.964
51.546 -65.1464 720.512
78.166 -91.1038 708.893
52.03 48.5438 728.002
-64.856 -65.7363 724.784
-38.962 28.6543 732.587
-117.128 39.1047 710.561
-12.826 -39.6104 737.81
65.34 -91.1881 708.937
50.82 -79.0521 720.233
51.304 39.189 728.017
-77.924 -66.242 719.694
-90.992 -13.4844 712.741
-51.788 26.8845 728.585
-130.196 39.0204 710.67
-25.894 -39.0204 735.758
52.03 -91.0195 708.822
38.962 40.2846 734.577
-88.33 -65.3992 715.01
-95.348 -13.99 709.718
-53.966 26.2945 728.008
-156.332 -91.0195 709.492
-64.856 -91.0195 725.327
-143.022 91.0195 711.343
-38.962 3.11826 732.67
-98.494 -65.0621 709.349
-169.158 65.3149 711.163
-54.45 -14.1586 728.014
-182.226 -78.2936 709.42
-77.682 27.643 718.426
-221.188 -93.7164 709.594
-117.128 -65.3992 709.461
-208.12 -91.4409 709.619
-104.302 -65.3992 709.377
-195.052 -78.2094 709.445
-85.426 26.126 715
-143.022 -91.3566 709.402
-130.196 -91.0195 709.479
-117.37 -91.0195 709.362
-143.022 39.5261 710.614
-38.962 -39.8632 732.919
51.788 -94.1378 707.573
-104.06 -91.1881 709.337
-85.91 0.08428 715.007
-156.09 -78.0408 709.318
-143.022 -78.0408 709.383
-130.196 -78.0408 709.365
-117.128 -78.0408 709.272
-104.302 -78.0408 709.191
-195.052 -91.1881 709.486
-85.426 13.4001 715.019
-98.978 -78.0408 709.244
-169.158 52.5048 710.902
-54.692 -26.5474 728.008
-182.226 -92.1151 709.495
-77.924 13.063 718.519
-90.992 -78.0408 713.857
-156.09 52.2519 710.8
-51.788 -26.6316 728.83
-169.158 -91.3566 709.464
-64.856 13.99 724.009
-64.856 -78.0408 724.93
-38.962 14.58 732.565
51.788 78.0408 729.726
-77.924 -26.7159 719.142
38.962 -65.0621 730.894
-90.992 13.4001 712.356
53.966 78.1251 728.033
-64.614 -26.0417 724.502
53.724 -53.8532 707.901
65.098 -53.0104 709.234
91.718 -52.0834 709.018
-90.992 12.6416 712.347
38.962 -78.0408 730.451
104.06 -52.0834 709.293
43.076 -78.1251 728.005
51.788 -89.5025 707.92
52.514 -79.6421 707.666
65.582 -78.0408 708.887
51.546 -52.2519 720.683
78.166 -78.0408 708.881
52.03 -52.2519 720.683
91.718 -78.1251 708.655
104.06 -78.2936 708.881
-221.188 -65.0621 709.997
-208.12 -65.9049 709.693
-84.7 39.0204 715.022
-195.052 -66.0734 709.476
-77.924 39.6946 718.252
-182.226 -65.2307 709.672
-64.856 39.3575 723.761
-169.158 -65.7363 709.473
-156.332 -66.4948 709.411
-143.022 -66.0734 709.461
-130.196 -66.1577 709.476
-90.992 -66.1577 713.63
-156.09 65.3992 711.005
-51.788 -16.0127 728.755
-169.158 -78.715 709.315
-64.856 30.2556 723.808
51.788 91.1038 730.38
-77.924 -13.4001 718.832
38.962 -53.5161 731.344
-90.992 27.3059 712.136
38.962 78.0408 735.771
-86.878 -26.126 715.007
25.894 -65.7363 735.476
-93.654 13.9058 710.05
-143.022 52.0834 710.809
-38.962 -26.4631 732.857
-130.196 52.8419 710.961
-25.894 -26.2945 735.693
-117.128 52.0834 710.819
-12.826 -26.6316 737.829
-104.06 52.4205 710.735
0.726 -27.1373 739.246
-91.718 52.8419 710.611
25.894 -27.5587 736.378
-90.992 59.6684 710.784
38.962 -29.9185 732.249
46.464 -26.3788 728.002
51.788 -32.6996 721.852
52.514 -37.082 720.546
54.934 -34.7223 708.456
65.824 -26.0417 709.365
78.166 -27.2216 709.377
91.234 -26.3788 709.225
104.06 -27.053 709.365
117.854 -26.126 708.27
-221.188 -15.0014 710.437
-208.12 -13.99 710.199
-83.006 91.1038 715.022
-195.052 -13.1473 710.056
-77.924 91.1038 717.437
-182.226 -14.4114 710.106
-64.856 91.6937 723.135
-169.158 -13.5687 710.059
-51.788 97.4246 727.993
-156.09 -16.1812 709.988
-143.022 -14.7485 710.01
-130.196 -13.9058 710.056
-117.128 -13.7372 709.92
-104.06 -14.4957 709.861
38.962 91.1038 736.217
-86.152 -14.4114 715.025
25.894 -54.0218 735.699
-93.654 27.1373 710.171
-143.022 65.7363 711.098
-38.962 -13.4001 732.72
-130.196 65.3149 711.119
-25.894 -14.0743 735.606
-117.128 65.1464 710.989
-12.826 -13.8215 737.962
-104.06 65.2307 710.924
12.826 -14.3272 739.115
-91.476 65.2307 710.828
25.894 -16.0127 736.549
-90.992 65.1464 710.927
38.962 -24.8618 732.432
47.432 -14.3272 728.005
51.788 -21.2379 723.532
53.24 -21.575 720.856
55.902 -19.2152 708.943
65.582 -15.4228 709.433
78.166 -14.3272 709.523
91.476 -13.063 709.241
104.544 -15.2542 709.362
118.338 -13.4844 708.478
-221.188 -12.8102 710.518
-208.12 -4.12959 710.251
-195.052 -12.9787 710.065
-182.226 -0.7585 710.248
-57.112 -91.1881 728.024
-169.158 -12.9787 710.081
-51.788 -91.2724 729.66
-156.09 -2.19121 710.099
-38.962 -91.2724 733.287
-143.264 -12.9787 710.022
-25.894 -91.0195 735.814
-130.196 -11.1246 710.149
-12.342 -91.0195 737.41
-117.128 -12.9787 709.935
12.826 -91.1881 738.226
-104.06 -8.59629 709.951
-85.668 -0.58994 715.019
-143.022 78.1251 711.212
-38.962 -1.60127 732.754
-130.196 78.2094 711.184
-25.894 -1.09561 735.715
-117.128 78.0408 711.101
-12.826 -11.7146 737.987
-104.06 78.0408 711.073
12.584 -5.14092 739.215
-91.234 78.0408 710.998
25.652 -12.8944 736.669
-90.266 78.0408 710.967
38.962 -12.7259 732.869
47.916 -4.88809 728.005
51.788 -11.4617 724.406
54.208 -2.69688 721.383
57.112 -1.93838 709.058
65.098 -12.4731 709.513
78.166 -5.98369 709.603
91.476 -12.9787 709.203
104.06 -0.16855 709.56
118.822 -7.83779 708.001
-221.188 0.25283 710.682
-208.12 0 710.378
-195.052 0.67422 710.335
-182.226 4.97236 710.347
-55.66 -78.6308 728.002
-169.158 0.42139 710.202
-51.788 -78.0408 729.323
-156.09 0 710.279
-38.962 -78.1251 732.946
-143.022 0.42139 710.211
-25.894 -78.6308 735.554
-130.196 0.16855 710.298
-12.826 -78.0408 737.224
-117.128 0.42139 710.164
12.826 -78.2094 738.281
-104.06 2.10693 710.096
-130.196 91.1881 711.451
-25.894 2.86543 735.764
-117.128 91.0195 711.318
-12.342 1.34844 738.068
-104.06 91.1881 711.178
12.584 0.16855 739.329
-91.718 91.0195 711.073
25.41 0 736.998
-89.54 91.1881 711.129
38.962 0.08428 733.408
48.4 0.33711 728.002
51.788 0.50566 725.277
54.692 3.11826 721.247
57.354 3.11826 709.11
65.098 1.43271 709.644
78.408 0.08428 709.647
91.234 0.08428 709.464
104.06 0.16855 709.538
119.064 1.60127 708.382
-221.188 13.4001 710.812
-208.362 15.8441 710.412
-195.052 13.5687 710.447
-182.952 14.3272 710.369
-55.902 -65.0621 728.017
-169.158 13.8215 710.326
-51.788 -65.7363 729.217
-156.09 15.6756 710.313
-38.962 -65.0621 733.049
-143.022 13.1473 710.366
-25.894 -65.3992 735.715
-130.196 13.4001 710.44
-12.826 -65.652 737.271
-117.854 13.063 710.199
12.826 -65.4835 738.539
-104.302 13.3158 710.133
-25.894 15.0856 735.74
-12.826 14.6643 738.089
12.584 13.063 739.413
25.652 13.1473 737.252
-89.782 -91.2724 715.035
38.962 13.063 733.852
-77.924 -91.6095 720.236
49.368 13.6529 728.017
51.788 13.2315 726.046
55.176 15.3385 721.743
58.08 15.1699 709.067
67.034 13.3158 709.634
78.166 15.7599 709.792
91.234 13.2315 709.576
104.06 14.4957 709.765
119.79 13.6529 708.391
-221.43 26.126 711.005
-208.12 27.8958 710.769
-195.052 26.8002 710.667
-182.226 26.4631 710.698
-55.902 -52.0834 728.03
-169.158 26.3788 710.617
-51.788 -52.4205 729.397
-156.09 26.0417 710.62
-38.962 -52.0834 733.086
-143.022 26.126 710.564
-25.894 -52.0834 735.845
-130.196 27.053 710.599
-12.826 -58.7413 737.255
-117.128 26.4631 710.53
12.826 -53.6004 738.719
-104.06 26.0417 710.456
-25.894 29.4128 735.733
-12.342 26.0417 738.288
12.342 26.126 739.636
25.168 26.0417 737.609
